1000090.36	 112366.64	 152.29	
1000090.36	 112366.64	 152.23	
1000090.36	 112366.64	 152.17	
1000090.36	 112366.64	 152.12	
1000090.36	 112366.64	 152.06	
1000090.35	 112366.63	 152.00	
1000090.36	 112366.64	 151.94	
1000090.36	 112366.64	 151.88	
1000090.36	 112366.64	 151.82	
1000090.35	 112366.63	 151.76	
1000090.35	 112366.63	 151.71	
1000090.35	 112366.63	 151.65	
1000090.35	 112366.63	 151.59	
1000090.91	 112366.92	 151.42	
1000090.91	 112366.92	 151.36	
1000090.91	 112366.92	 151.30	
1000090.92	 112366.92	 151.24	
1000090.76	 112366.84	 151.22	
1000092.23	 112367.65	 161.12	
1000092.25	 112367.65	 161.06	
1000092.23	 112367.64	 161.00	
1000092.19	 112367.62	 160.96	
1000092.18	 112367.62	 160.90	
1000092.18	 112367.62	 160.83	
1000091.92	 112367.49	 160.88	
1000091.81	 112367.43	 160.86	
1000091.70	 112367.38	 160.84	
1000091.58	 112367.32	 160.83	
1000091.46	 112367.26	 160.81	
1000091.35	 112367.20	 160.79	
1000091.24	 112367.14	 160.78	
1000091.11	 112367.08	 160.76	
1000090.99	 112367.02	 160.75	
1000090.88	 112366.96	 160.73	
1000090.75	 112366.90	 160.72	
1000090.64	 112366.84	 160.70	
1000090.51	 112366.78	 160.68	
1000090.40	 112366.72	 160.66	
1000090.35	 112366.70	 160.62	
1000090.30	 112366.67	 160.57	
1000090.30	 112366.67	 160.51	
1000090.30	 112366.67	 160.45	
1000090.30	 112366.67	 160.38	
1000090.30	 112366.67	 160.32	
1000090.30	 112366.67	 160.26	
1000090.29	 112366.66	 160.20	
1000090.30	 112366.67	 160.13	
1000090.30	 112366.67	 160.07	
1000090.85	 112366.95	 159.80	
1000090.86	 112366.95	 159.74	
1000090.85	 112366.95	 159.68	
1000090.85	 112366.95	 159.62	
1000090.69	 112366.87	 159.61	
1000090.53	 112366.78	 159.61	
1000090.36	 112366.70	 159.61	
1000090.20	 112366.62	 159.61	
1000090.15	 112366.60	 159.56	
1000090.15	 112366.59	 159.50	
1000090.15	 112366.59	 159.44	
1000090.15	 112366.59	 159.37	
1000090.15	 112366.59	 159.31	
1000090.15	 112366.60	 159.25	
1000090.15	 112366.59	 159.18	
1000090.15	 112366.59	 159.12	
1000090.15	 112366.59	 159.06	
1000090.15	 112366.59	 159.00	
1000090.15	 112366.59	 158.94	
1000090.15	 112366.59	 158.87	
1000090.15	 112366.59	 158.81	
1000090.15	 112366.59	 158.75	
1000090.15	 112366.59	 158.69	
1000090.15	 112366.59	 158.63	
1000090.15	 112366.59	 158.56	
1000090.15	 112366.59	 158.50	
1000090.15	 112366.59	 158.44	
1000090.15	 112366.59	 158.38	
1000090.15	 112366.59	 158.32	
1000090.15	 112366.59	 158.26	
1000090.15	 112366.59	 158.19	
1000090.15	 112366.59	 158.13	
1000090.15	 112366.59	 158.07	
1000090.15	 112366.59	 158.01	
1000090.15	 112366.59	 157.95	
1000090.15	 112366.59	 157.89	
1000090.15	 112366.59	 157.82	
1000090.15	 112366.59	 157.76	
1000090.15	 112366.59	 157.70	
1000090.15	 112366.59	 157.64	
1000090.15	 112366.59	 157.58	
1000090.15	 112366.59	 157.52	
1000090.15	 112366.59	 157.46	
1000090.15	 112366.59	 157.40	
1000090.15	 112366.59	 157.33	
1000090.15	 112366.59	 157.27	
1000090.15	 112366.59	 157.21	
1000090.15	 112366.59	 157.15	
1000090.15	 112366.59	 157.09	
1000090.15	 112366.59	 157.03	
1000090.15	 112366.59	 156.97	
1000090.15	 112366.59	 156.91	
1000090.15	 112366.59	 156.84	
1000090.15	 112366.59	 156.78	
1000090.37	 112366.71	 156.65	
1000090.28	 112366.66	 156.62	
1000090.28	 112366.66	 156.56	
1000090.28	 112366.66	 156.50	
1000090.28	 112366.66	 156.44	
1000090.27	 112366.66	 156.38	
1000090.28	 112366.66	 156.32	
1000090.28	 112366.66	 156.26	
1000090.28	 112366.66	 156.20	
1000090.28	 112366.66	 156.13	
1000090.28	 112366.66	 156.07	
1000090.28	 112366.66	 156.01	
1000090.28	 112366.66	 155.95	
1000090.28	 112366.66	 155.89	
1000090.84	 112366.94	 155.61	
1000090.84	 112366.94	 155.55	
1000090.84	 112366.94	 155.50	
1000090.81	 112366.93	 155.44	
1000090.68	 112366.86	 155.42	
1000090.48	 112366.76	 155.42	
1000090.27	 112366.65	 155.41	
1000090.16	 112366.60	 155.38	
1000090.16	 112366.60	 155.32	
1000090.16	 112366.60	 155.27	
1000090.16	 112366.60	 155.21	
1000090.16	 112366.60	 155.15	
1000090.16	 112366.60	 155.09	
1000090.16	 112366.60	 155.03	
1000090.16	 112366.60	 154.96	
1000090.16	 112366.60	 154.91	
1000090.16	 112366.60	 154.85	
1000090.16	 112366.60	 154.79	
1000090.16	 112366.60	 154.72	
1000090.16	 112366.60	 154.66	
1000090.15	 112366.60	 154.61	
1000090.16	 112366.60	 154.54	
1000090.16	 112366.60	 154.49	
1000090.16	 112366.60	 154.43	
1000090.16	 112366.60	 154.37	
1000090.16	 112366.60	 154.31	
1000090.16	 112366.60	 154.25	
1000090.15	 112366.60	 154.19	
1000090.16	 112366.60	 154.13	
1000090.16	 112366.60	 154.07	
1000090.16	 112366.60	 154.01	
1000090.16	 112366.60	 153.95	
1000090.15	 112366.60	 153.89	
1000090.15	 112366.60	 153.83	
1000090.15	 112366.60	 153.77	
1000090.15	 112366.60	 153.71	
1000090.16	 112366.60	 153.65	
1000090.16	 112366.60	 153.59	
1000090.16	 112366.60	 153.54	
1000090.16	 112366.60	 153.48	
1000090.15	 112366.60	 153.42	
1000090.15	 112366.60	 153.36	
1000090.16	 112366.60	 153.30	
1000090.16	 112366.60	 153.24	
1000090.15	 112366.60	 153.18	
1000090.15	 112366.60	 153.12	
1000090.15	 112366.60	 153.06	
1000090.15	 112366.60	 153.00	
1000090.15	 112366.60	 152.94	
1000090.15	 112366.60	 152.88	
1000090.15	 112366.60	 152.82	
1000090.15	 112366.60	 152.76	
1000090.15	 112366.60	 152.71	
1000090.15	 112366.60	 152.65	
1000090.15	 112366.60	 152.59	
1000090.37	 112366.71	 152.48	
1000090.29	 112366.67	 152.44	
1000090.28	 112366.66	 152.38	
1000090.28	 112366.66	 152.32	
1000090.28	 112366.66	 152.27	
1000090.28	 112366.66	 152.21	
1000090.28	 112366.66	 152.15	
1000090.28	 112366.66	 152.09	
1000090.28	 112366.66	 152.03	
1000090.28	 112366.66	 151.97	
1000090.28	 112366.66	 151.91	
1000090.29	 112366.66	 151.86	
1000090.28	 112366.66	 151.80	
1000090.28	 112366.66	 151.74	
1000090.28	 112366.66	 151.68	
1000090.28	 112366.66	 151.62	
1000090.81	 112366.93	 151.46	
1000090.84	 112366.94	 151.40	
1000090.84	 112366.94	 151.34	
1000090.84	 112366.94	 151.28	
1000090.83	 112366.94	 151.22	
1000090.57	 112366.81	 151.22	
1000092.18	 112367.68	 161.07	
1000092.18	 112367.68	 161.01	
1000092.12	 112367.65	 160.97	
1000092.12	 112367.65	 160.91	
1000092.12	 112367.65	 160.85	
1000092.00	 112367.59	 160.83	
1000091.77	 112367.47	 160.87	
1000091.66	 112367.42	 160.85	
1000091.54	 112367.36	 160.83	
1000091.43	 112367.30	 160.82	
1000091.31	 112367.24	 160.80	
1000091.19	 112367.18	 160.78	
1000091.07	 112367.12	 160.77	
1000090.95	 112367.06	 160.75	
1000090.84	 112367.00	 160.73	
1000090.72	 112366.94	 160.72	
1000090.60	 112366.88	 160.70	
1000090.47	 112366.82	 160.69	
1000090.35	 112366.75	 160.67	
1000090.28	 112366.72	 160.63	
1000090.22	 112366.69	 160.59	
1000090.22	 112366.69	 160.53	
1000090.22	 112366.69	 160.47	
1000090.23	 112366.69	 160.40	
1000090.23	 112366.69	 160.34	
1000090.23	 112366.69	 160.28	
1000090.23	 112366.69	 160.21	
1000090.23	 112366.69	 160.15	
1000090.23	 112366.69	 160.09	
1000090.79	 112366.98	 159.82	
1000090.78	 112366.97	 159.76	
1000090.79	 112366.97	 159.69	
1000090.78	 112366.97	 159.63	
1000090.64	 112366.90	 159.62	
1000090.50	 112366.83	 159.61	
1000090.34	 112366.75	 159.61	
1000090.17	 112366.66	 159.61	
1000090.13	 112366.64	 159.56	
1000090.13	 112366.64	 159.50	
1000090.13	 112366.64	 159.43	
1000090.13	 112366.64	 159.37	
1000090.13	 112366.64	 159.31	
1000090.13	 112366.64	 159.25	
1000090.13	 112366.64	 159.18	
1000090.13	 112366.64	 159.12	
1000090.13	 112366.64	 159.06	
1000090.13	 112366.64	 159.00	
1000090.13	 112366.64	 158.93	
1000090.13	 112366.64	 158.87	
1000090.12	 112366.64	 158.81	
1000090.12	 112366.64	 158.75	
1000090.12	 112366.64	 158.69	
1000090.13	 112366.64	 158.62	
1000090.12	 112366.64	 158.56	
1000090.12	 112366.64	 158.50	
1000090.12	 112366.64	 158.44	
1000090.12	 112366.64	 158.38	
1000090.13	 112366.64	 158.32	
1000090.13	 112366.64	 158.25	
1000090.12	 112366.64	 158.19	
1000090.13	 112366.64	 158.13	
1000090.13	 112366.64	 158.07	
1000090.13	 112366.64	 158.01	
1000090.12	 112366.64	 157.94	
1000090.12	 112366.64	 157.89	
1000090.12	 112366.64	 157.82	
1000090.12	 112366.64	 157.76	
1000090.12	 112366.64	 157.70	
1000090.12	 112366.64	 157.64	
1000090.12	 112366.64	 157.58	
1000090.12	 112366.64	 157.52	
1000090.12	 112366.64	 157.45	
1000090.12	 112366.64	 157.39	
1000090.12	 112366.64	 157.33	
1000090.12	 112366.64	 157.27	
1000090.12	 112366.64	 157.21	
1000090.12	 112366.64	 157.15	
1000090.12	 112366.64	 157.09	
1000090.12	 112366.64	 157.03	
1000090.12	 112366.64	 156.97	
1000090.12	 112366.64	 156.91	
1000090.12	 112366.64	 156.84	
1000090.12	 112366.64	 156.78	
1000090.31	 112366.73	 156.66	
1000090.21	 112366.69	 156.63	
1000090.21	 112366.68	 156.57	
1000090.21	 112366.68	 156.51	
1000090.21	 112366.68	 156.45	
1000090.21	 112366.68	 156.39	
1000090.21	 112366.68	 156.33	
1000090.21	 112366.68	 156.27	
1000090.21	 112366.68	 156.21	
1000090.21	 112366.68	 156.15	
1000090.21	 112366.68	 156.09	
1000090.21	 112366.68	 156.03	
1000090.21	 112366.69	 155.97	
1000090.21	 112366.69	 155.91	
1000090.22	 112366.69	 155.84	
1000090.77	 112366.97	 155.63	
1000090.78	 112366.97	 155.56	
1000090.78	 112366.97	 155.50	
1000090.74	 112366.95	 155.45	
1000090.63	 112366.90	 155.42	
1000090.44	 112366.80	 155.42	
1000090.25	 112366.70	 155.41	
1000090.11	 112366.63	 155.39	
1000090.11	 112366.64	 155.33	
1000090.12	 112366.64	 155.27	
1000090.12	 112366.64	 155.21	
1000090.12	 112366.64	 155.15	
1000090.11	 112366.63	 155.09	
1000090.12	 112366.64	 155.03	
1000090.12	 112366.64	 154.97	
1000090.12	 112366.64	 154.91	
1000090.12	 112366.64	 154.85	
1000090.11	 112366.63	 154.79	
1000090.12	 112366.64	 154.73	
1000090.11	 112366.63	 154.67	
1000090.11	 112366.64	 154.61	
1000090.11	 112366.63	 154.55	
1000090.11	 112366.63	 154.49	
1000090.12	 112366.64	 154.43	
1000090.11	 112366.63	 154.37	
1000090.11	 112366.63	 154.31	
1000090.11	 112366.63	 154.25	
1000090.12	 112366.64	 154.19	
1000090.11	 112366.63	 154.13	
1000090.12	 112366.64	 154.07	
1000090.12	 112366.64	 154.01	
1000090.11	 112366.63	 153.95	
1000090.12	 112366.64	 153.89	
1000090.11	 112366.64	 153.83	
1000090.11	 112366.63	 153.77	
1000090.11	 112366.64	 153.72	
1000090.11	 112366.63	 153.66	
1000090.11	 112366.63	 153.60	
1000090.11	 112366.63	 153.54	
1000090.11	 112366.63	 153.48	
1000090.11	 112366.64	 153.42	
1000090.11	 112366.64	 153.36	
1000090.11	 112366.64	 153.30	
1000090.11	 112366.63	 153.24	
1000090.11	 112366.63	 153.18	
1000090.11	 112366.63	 153.12	
1000090.11	 112366.63	 153.07	
1000090.11	 112366.63	 153.01	
1000090.11	 112366.63	 152.95	
1000090.11	 112366.63	 152.89	
1000090.11	 112366.63	 152.83	
1000090.11	 112366.63	 152.77	
1000090.10	 112366.63	 152.71	
1000090.10	 112366.63	 152.65	
1000090.11	 112366.63	 152.59	
1000090.17	 112366.67	 152.52	
1000090.30	 112366.73	 152.43	
1000090.21	 112366.68	 152.40	
1000090.21	 112366.68	 152.33	
1000090.21	 112366.69	 152.28	
1000090.21	 112366.69	 152.22	
1000090.21	 112366.69	 152.16	
1000090.21	 112366.69	 152.10	
1000090.21	 112366.69	 152.04	
1000090.21	 112366.69	 151.98	
1000090.21	 112366.69	 151.92	
1000090.21	 112366.69	 151.86	
1000090.21	 112366.69	 151.81	
1000090.21	 112366.69	 151.75	
1000090.21	 112366.69	 151.69	
1000090.21	 112366.69	 151.63	
1000090.76	 112366.97	 151.46	
1000090.76	 112366.97	 151.40	
1000090.76	 112366.97	 151.35	
1000090.77	 112366.97	 151.29	
1000090.77	 112366.97	 151.23	
1000090.54	 112366.85	 151.22	
1000092.10	 112367.70	 161.10	
1000092.11	 112367.70	 161.03	
1000092.05	 112367.67	 161.00	
1000092.04	 112367.67	 160.94	
1000092.04	 112367.67	 160.88	
1000092.01	 112367.66	 160.82	
1000091.74	 112367.52	 160.87	
1000091.63	 112367.47	 160.85	
1000091.52	 112367.41	 160.84	
1000091.40	 112367.35	 160.82	
1000091.28	 112367.29	 160.80	
1000091.16	 112367.23	 160.79	
1000091.04	 112367.17	 160.77	
1000090.92	 112367.11	 160.76	
1000090.80	 112367.05	 160.74	
1000090.68	 112366.99	 160.72	
1000090.56	 112366.93	 160.71	
1000090.44	 112366.87	 160.69	
1000090.31	 112366.80	 160.68	
1000090.21	 112366.75	 160.66	
1000090.17	 112366.73	 160.61	
1000090.14	 112366.71	 160.55	
1000090.14	 112366.72	 160.49	
1000090.15	 112366.72	 160.42	
1000090.15	 112366.72	 160.36	
1000090.15	 112366.72	 160.30	
1000090.15	 112366.72	 160.24	
1000090.15	 112366.72	 160.17	
1000090.15	 112366.72	 160.11	
1000090.71	 112367.00	 159.84	
1000090.71	 112367.00	 159.78	
1000090.71	 112367.00	 159.72	
1000090.71	 112367.00	 159.65	
1000090.59	 112366.94	 159.63	
1000090.48	 112366.89	 159.61	
1000090.31	 112366.80	 159.61	
1000090.14	 112366.71	 159.61	
1000090.05	 112366.67	 159.58	
1000090.05	 112366.67	 159.52	
1000090.05	 112366.67	 159.46	
1000090.05	 112366.67	 159.39	
1000090.05	 112366.67	 159.33	
1000090.05	 112366.67	 159.27	
1000090.05	 112366.67	 159.21	
1000090.05	 112366.67	 159.14	
1000090.05	 112366.67	 159.08	
1000090.05	 112366.67	 159.02	
1000090.05	 112366.67	 158.96	
1000090.05	 112366.67	 158.89	
1000090.05	 112366.67	 158.83	
1000090.04	 112366.66	 158.77	
1000090.05	 112366.67	 158.71	
1000090.05	 112366.67	 158.65	
1000090.05	 112366.67	 158.58	
1000090.05	 112366.67	 158.52	
1000090.04	 112366.66	 158.46	
1000090.05	 112366.67	 158.40	
1000090.05	 112366.67	 158.34	
1000090.05	 112366.67	 158.27	
1000090.05	 112366.67	 158.21	
1000090.05	 112366.67	 158.15	
1000090.05	 112366.67	 158.09	
1000090.05	 112366.67	 158.03	
1000090.05	 112366.67	 157.97	
1000090.05	 112366.67	 157.91	
1000090.05	 112366.67	 157.84	
1000090.04	 112366.67	 157.78	
1000090.04	 112366.66	 157.72	
1000090.04	 112366.66	 157.66	
1000090.04	 112366.66	 157.60	
1000090.04	 112366.66	 157.54	
1000090.04	 112366.66	 157.47	
1000090.04	 112366.66	 157.41	
1000090.04	 112366.66	 157.35	
1000090.04	 112366.66	 157.29	
1000090.04	 112366.66	 157.23	
1000090.04	 112366.66	 157.17	
1000090.04	 112366.66	 157.11	
1000090.04	 112366.66	 157.05	
1000090.04	 112366.66	 156.99	
1000090.04	 112366.66	 156.92	
1000090.04	 112366.66	 156.86	
1000090.04	 112366.66	 156.80	
1000090.22	 112366.76	 156.69	
1000090.15	 112366.72	 156.65	
1000090.13	 112366.71	 156.59	
1000090.12	 112366.71	 156.53	
1000090.13	 112366.71	 156.47	
1000090.13	 112366.71	 156.41	
1000090.13	 112366.71	 156.35	
1000090.13	 112366.71	 156.29	
1000090.13	 112366.71	 156.23	
1000090.13	 112366.71	 156.17	
1000090.13	 112366.71	 156.11	
1000090.13	 112366.71	 156.04	
1000090.13	 112366.71	 155.98	
1000090.14	 112366.71	 155.92	
1000090.14	 112366.71	 155.86	
1000090.68	 112366.98	 155.65	
1000090.71	 112367.00	 155.58	
1000090.71	 112367.00	 155.52	
1000090.69	 112366.99	 155.47	
1000090.56	 112366.93	 155.44	
1000090.43	 112366.86	 155.42	
1000090.22	 112366.76	 155.41	
1000090.04	 112366.66	 155.41	
1000090.04	 112366.66	 155.35	
1000090.04	 112366.66	 155.29	
1000090.04	 112366.66	 155.22	
1000090.04	 112366.66	 155.17	
1000090.04	 112366.66	 155.10	
1000090.04	 112366.66	 155.04	
1000090.04	 112366.66	 154.99	
1000090.04	 112366.66	 154.93	
1000090.04	 112366.66	 154.87	
1000090.04	 112366.66	 154.81	
1000090.04	 112366.66	 154.75	
1000090.04	 112366.66	 154.69	
1000090.04	 112366.66	 154.63	
1000090.04	 112366.66	 154.57	
1000090.04	 112366.66	 154.51	
1000090.04	 112366.66	 154.44	
1000090.04	 112366.66	 154.39	
1000090.04	 112366.66	 154.33	
1000090.04	 112366.66	 154.27	
1000090.04	 112366.66	 154.21	
1000090.04	 112366.66	 154.15	
1000090.04	 112366.66	 154.09	
1000090.04	 112366.66	 154.03	
1000090.04	 112366.66	 153.97	
1000090.04	 112366.66	 153.91	
1000090.04	 112366.66	 153.85	
1000090.04	 112366.66	 153.79	
1000090.04	 112366.66	 153.73	
1000090.03	 112366.66	 153.67	
1000090.04	 112366.66	 153.61	
1000090.03	 112366.66	 153.55	
1000090.04	 112366.66	 153.49	
1000090.04	 112366.66	 153.43	
1000090.03	 112366.66	 153.38	
1000090.03	 112366.66	 153.32	
1000090.03	 112366.66	 153.26	
1000090.03	 112366.66	 153.20	
1000090.03	 112366.66	 153.14	
1000090.03	 112366.66	 153.08	
1000090.03	 112366.66	 153.02	
1000090.03	 112366.66	 152.96	
1000090.03	 112366.66	 152.90	
1000090.03	 112366.66	 152.84	
1000090.03	 112366.66	 152.78	
1000090.03	 112366.66	 152.72	
1000090.03	 112366.66	 152.66	
1000090.03	 112366.66	 152.61	
1000090.04	 112366.66	 152.55	
1000090.23	 112366.76	 152.45	
1000090.13	 112366.71	 152.41	
1000090.13	 112366.71	 152.35	
1000090.13	 112366.71	 152.29	
1000090.14	 112366.71	 152.23	
1000090.13	 112366.71	 152.17	
1000090.14	 112366.71	 152.11	
1000090.13	 112366.71	 152.06	
1000090.14	 112366.71	 152.00	
1000090.14	 112366.71	 151.94	
1000090.13	 112366.71	 151.88	
1000090.13	 112366.71	 151.82	
1000090.13	 112366.71	 151.76	
1000090.13	 112366.71	 151.70	
1000090.13	 112366.71	 151.65	
1000090.13	 112366.71	 151.59	
1000090.68	 112366.99	 151.42	
1000090.69	 112366.99	 151.36	
1000090.69	 112366.99	 151.30	
1000090.70	 112366.99	 151.24	
1000090.52	 112366.91	 151.22	
1000092.03	 112367.73	 161.07	
1000092.04	 112367.73	 161.01	
1000091.97	 112367.70	 160.97	
1000091.97	 112367.70	 160.91	
1000091.97	 112367.69	 160.85	
1000091.87	 112367.64	 160.83	
1000091.63	 112367.52	 160.86	
1000091.52	 112367.47	 160.85	
1000091.40	 112367.41	 160.83	
1000091.28	 112367.35	 160.82	
1000091.16	 112367.29	 160.80	
1000091.05	 112367.23	 160.78	
1000090.92	 112367.17	 160.77	
1000090.81	 112367.11	 160.75	
1000090.69	 112367.05	 160.73	
1000090.57	 112366.99	 160.72	
1000090.45	 112366.93	 160.70	
1000090.32	 112366.87	 160.69	
1000090.20	 112366.80	 160.67	
1000090.13	 112366.77	 160.63	
1000090.07	 112366.74	 160.59	
1000090.08	 112366.74	 160.53	
1000090.07	 112366.74	 160.47	
1000090.07	 112366.74	 160.40	
1000090.08	 112366.74	 160.34	
1000090.08	 112366.74	 160.28	
1000090.07	 112366.74	 160.21	
1000090.08	 112366.74	 160.15	
1000090.08	 112366.74	 160.08	
1000090.64	 112367.02	 159.82	
1000090.63	 112367.02	 159.76	
1000090.64	 112367.02	 159.69	
1000090.64	 112367.02	 159.63	
1000090.50	 112366.96	 159.62	
1000090.34	 112366.88	 159.61	
1000090.18	 112366.79	 159.61	
1000090.01	 112366.71	 159.61	
1000089.97	 112366.69	 159.56	
1000089.98	 112366.69	 159.49	
1000089.97	 112366.69	 159.43	
1000089.98	 112366.69	 159.37	
1000089.97	 112366.69	 159.31	
1000089.97	 112366.69	 159.24	
1000089.98	 112366.69	 159.18	
1000089.97	 112366.69	 159.12	
1000089.97	 112366.69	 159.06	
1000089.97	 112366.69	 158.99	
1000089.97	 112366.69	 158.93	
1000089.98	 112366.69	 158.87	
1000089.97	 112366.69	 158.81	
1000089.97	 112366.69	 158.75	
1000089.97	 112366.69	 158.69	
1000089.97	 112366.69	 158.62	
1000089.97	 112366.69	 158.56	
1000089.97	 112366.69	 158.50	
1000089.97	 112366.69	 158.43	
1000089.97	 112366.69	 158.37	
1000089.97	 112366.69	 158.31	
1000089.97	 112366.69	 158.25	
1000089.97	 112366.69	 158.19	
1000089.97	 112366.69	 158.13	
1000089.97	 112366.69	 158.07	
1000089.97	 112366.69	 158.00	
1000089.97	 112366.69	 157.94	
1000089.97	 112366.69	 157.88	
1000089.97	 112366.69	 157.82	
1000089.97	 112366.69	 157.76	
1000089.97	 112366.69	 157.69	
1000089.97	 112366.69	 157.63	
1000089.97	 112366.69	 157.57	
1000089.97	 112366.69	 157.51	
1000089.97	 112366.69	 157.45	
1000089.97	 112366.69	 157.39	
1000089.97	 112366.69	 157.33	
1000089.97	 112366.69	 157.27	
1000089.97	 112366.69	 157.21	
1000089.97	 112366.69	 157.14	
1000089.97	 112366.69	 157.08	
1000089.96	 112366.69	 157.02	
1000089.97	 112366.69	 156.96	
1000089.97	 112366.69	 156.90	
1000089.97	 112366.69	 156.84	
1000089.97	 112366.69	 156.78	
1000090.15	 112366.78	 156.66	
1000090.05	 112366.73	 156.63	
1000090.05	 112366.73	 156.57	
1000090.05	 112366.73	 156.51	
1000090.05	 112366.73	 156.44	
1000090.05	 112366.73	 156.38	
1000090.06	 112366.73	 156.32	
1000090.05	 112366.73	 156.26	
1000090.06	 112366.73	 156.20	
1000090.06	 112366.73	 156.14	
1000090.06	 112366.73	 156.08	
1000090.06	 112366.73	 156.02	
1000090.06	 112366.73	 155.96	
1000090.06	 112366.74	 155.90	
1000090.62	 112367.02	 155.68	
1000090.64	 112367.02	 155.61	
1000090.63	 112367.02	 155.56	
1000090.63	 112367.02	 155.49	
1000090.57	 112366.99	 155.45	
1000090.46	 112366.94	 155.42	
1000090.27	 112366.84	 155.41	
1000090.06	 112366.74	 155.41	
1000089.97	 112366.69	 155.38	
1000089.96	 112366.69	 155.32	
1000089.96	 112366.69	 155.26	
1000089.96	 112366.69	 155.20	
1000089.97	 112366.69	 155.14	
1000089.96	 112366.69	 155.08	
1000089.96	 112366.69	 155.02	
1000089.96	 112366.69	 154.96	
1000089.96	 112366.69	 154.90	
1000089.96	 112366.69	 154.84	
1000089.96	 112366.69	 154.78	
1000089.96	 112366.69	 154.72	
1000089.96	 112366.69	 154.66	
1000089.96	 112366.69	 154.60	
1000089.96	 112366.69	 154.54	
1000089.96	 112366.69	 154.48	
1000089.96	 112366.69	 154.42	
1000089.97	 112366.69	 154.36	
1000089.96	 112366.69	 154.30	
1000089.97	 112366.69	 154.24	
1000089.96	 112366.69	 154.18	
1000089.96	 112366.69	 154.12	
1000089.96	 112366.69	 154.06	
1000089.97	 112366.69	 154.00	
1000089.96	 112366.69	 153.94	
1000089.96	 112366.69	 153.88	
1000089.96	 112366.69	 153.82	
1000089.96	 112366.69	 153.76	
1000089.96	 112366.69	 153.70	
1000089.96	 112366.69	 153.65	
1000089.96	 112366.69	 153.59	
1000089.96	 112366.69	 153.52	
1000089.96	 112366.69	 153.47	
1000089.96	 112366.69	 153.40	
1000089.96	 112366.69	 153.35	
1000089.96	 112366.69	 153.29	
1000089.96	 112366.69	 153.23	
1000089.96	 112366.68	 153.17	
1000089.95	 112366.68	 153.11	
1000089.96	 112366.68	 153.05	
1000089.95	 112366.68	 152.99	
1000089.96	 112366.68	 152.93	
1000089.95	 112366.68	 152.87	
1000089.96	 112366.68	 152.82	
1000089.96	 112366.68	 152.76	
1000089.95	 112366.68	 152.70	
1000089.96	 112366.68	 152.64	
1000089.95	 112366.68	 152.58	
1000090.15	 112366.78	 152.48	
1000090.06	 112366.74	 152.44	
1000090.06	 112366.73	 152.38	
1000090.05	 112366.73	 152.32	
1000090.06	 112366.74	 152.26	
1000090.06	 112366.74	 152.20	
1000090.06	 112366.74	 152.14	
1000090.06	 112366.74	 152.08	
1000090.06	 112366.74	 152.03	
1000090.06	 112366.74	 151.97	
1000090.06	 112366.74	 151.91	
1000090.06	 112366.74	 151.85	
1000090.06	 112366.74	 151.79	
1000090.06	 112366.74	 151.73	
1000090.06	 112366.74	 151.67	
1000090.06	 112366.74	 151.62	
1000090.61	 112367.02	 151.45	
1000090.60	 112367.01	 151.39	
1000090.61	 112367.01	 151.33	
1000090.62	 112367.02	 151.27	
1000090.52	 112366.97	 151.23	
1000090.31	 112366.86	 151.22	
1000091.95	 112367.75	 161.08	
1000091.96	 112367.76	 161.01	
1000091.90	 112367.72	 160.97	
1000091.89	 112367.72	 160.91	
1000091.89	 112367.72	 160.85	
1000091.80	 112367.67	 160.83	
1000091.56	 112367.55	 160.86	
1000091.44	 112367.50	 160.85	
1000091.33	 112367.44	 160.83	
1000091.21	 112367.38	 160.82	
1000091.09	 112367.32	 160.80	
1000090.97	 112367.26	 160.78	
1000090.85	 112367.20	 160.77	
1000090.73	 112367.14	 160.75	
1000090.61	 112367.08	 160.73	
1000090.49	 112367.02	 160.72	
1000090.37	 112366.96	 160.70	
1000090.25	 112366.90	 160.69	
1000090.12	 112366.83	 160.67	
1000090.05	 112366.80	 160.63	
1000089.99	 112366.77	 160.59	
1000090.00	 112366.77	 160.53	
1000089.99	 112366.77	 160.47	
1000089.99	 112366.77	 160.40	
1000089.99	 112366.77	 160.34	
1000089.99	 112366.77	 160.28	
1000089.99	 112366.77	 160.21	
1000090.00	 112366.77	 160.15	
1000090.00	 112366.77	 160.09	
1000090.56	 112367.05	 159.82	
1000090.56	 112367.05	 159.75	
1000090.56	 112367.05	 159.69	
1000090.56	 112367.05	 159.63	
1000090.42	 112366.98	 159.62	
1000090.27	 112366.91	 159.61	
1000090.10	 112366.82	 159.61	
1000089.93	 112366.74	 159.61	
1000089.76	 112366.65	 159.60	
1000090.07	 112366.81	 156.66	
1000089.98	 112366.76	 156.62	
1000089.97	 112366.76	 156.57	
1000089.97	 112366.76	 156.50	
1000089.97	 112366.76	 156.44	
1000089.97	 112366.76	 156.38	
1000089.97	 112366.76	 156.32	
1000089.97	 112366.76	 156.26	
1000089.98	 112366.76	 156.20	
1000089.98	 112366.76	 156.14	
1000089.97	 112366.76	 156.08	
1000089.98	 112366.76	 156.02	
1000089.98	 112366.76	 155.95	
1000089.98	 112366.76	 155.89	
1000090.55	 112367.05	 155.67	
1000090.55	 112367.05	 155.61	
1000090.55	 112367.05	 155.55	
1000090.55	 112367.05	 155.49	
1000090.50	 112367.02	 155.45	
1000090.37	 112366.96	 155.42	
1000090.18	 112366.86	 155.41	
1000089.97	 112366.76	 155.41	
1000089.76	 112366.65	 155.41	
1000089.72	 112366.63	 155.36	
1000090.07	 112366.81	 152.47	
1000089.98	 112366.76	 152.43	
1000089.98	 112366.76	 152.37	
1000089.98	 112366.76	 152.31	
1000089.98	 112366.76	 152.25	
1000089.98	 112366.76	 152.19	
1000089.98	 112366.76	 152.14	
1000089.98	 112366.76	 152.08	
1000089.98	 112366.76	 152.02	
1000089.98	 112366.76	 151.96	
1000089.98	 112366.76	 151.90	
1000089.98	 112366.76	 151.84	
1000089.98	 112366.76	 151.78	
1000089.98	 112366.76	 151.73	
1000089.98	 112366.76	 151.66	
1000089.98	 112366.76	 151.61	
1000090.53	 112367.04	 151.44	
1000090.53	 112367.04	 151.38	
1000090.54	 112367.04	 151.32	
1000090.54	 112367.04	 151.26	
1000090.40	 112366.97	 151.23	
1000090.20	 112366.87	 151.21	
1000091.88	 112367.78	 161.07	
1000091.89	 112367.78	 161.01	
1000091.82	 112367.75	 160.97	
1000091.82	 112367.74	 160.91	
1000091.82	 112367.74	 160.85	
1000091.72	 112367.69	 160.83	
1000091.49	 112367.58	 160.86	
1000091.37	 112367.52	 160.85	
1000091.25	 112367.46	 160.83	
1000091.13	 112367.40	 160.82	
1000091.01	 112367.34	 160.80	
1000090.90	 112367.28	 160.78	
1000090.78	 112367.22	 160.77	
1000090.66	 112367.16	 160.75	
1000090.53	 112367.10	 160.74	
1000090.41	 112367.04	 160.72	
1000090.29	 112366.98	 160.70	
1000090.17	 112366.92	 160.69	
1000090.04	 112366.86	 160.67	
1000089.98	 112366.82	 160.63	
1000089.92	 112366.79	 160.59	
1000089.92	 112366.79	 160.53	
1000089.91	 112366.79	 160.47	
1000089.92	 112366.80	 160.40	
1000089.92	 112366.79	 160.34	
1000089.92	 112366.79	 160.28	
1000089.92	 112366.79	 160.21	
1000089.92	 112366.79	 160.15	
1000089.92	 112366.80	 160.09	
1000090.48	 112367.08	 159.82	
1000090.48	 112367.08	 159.75	
1000090.48	 112367.08	 159.69	
1000090.48	 112367.07	 159.63	
1000090.34	 112367.01	 159.62	
1000090.19	 112366.93	 159.61	
1000090.02	 112366.84	 159.61	
1000089.85	 112366.76	 159.61	
1000089.67	 112366.67	 159.61	
1000089.99	 112366.83	 156.65	
1000089.90	 112366.79	 156.62	
1000089.90	 112366.78	 156.56	
1000089.90	 112366.78	 156.50	
1000089.90	 112366.78	 156.44	
1000089.90	 112366.78	 156.38	
1000089.90	 112366.79	 156.32	
1000089.90	 112366.78	 156.26	
1000089.90	 112366.78	 156.20	
1000089.90	 112366.78	 156.13	
1000089.90	 112366.79	 156.07	
1000089.90	 112366.78	 156.01	
1000089.90	 112366.79	 155.95	
1000089.91	 112366.79	 155.89	
1000090.48	 112367.07	 155.67	
1000090.48	 112367.07	 155.61	
1000090.47	 112367.07	 155.55	
1000090.47	 112367.07	 155.49	
1000090.44	 112367.05	 155.44	
1000090.28	 112366.97	 155.42	
1000090.08	 112366.88	 155.42	
1000089.87	 112366.77	 155.41	
1000089.66	 112366.67	 155.41	
1000089.64	 112366.65	 155.36	
1000089.99	 112366.83	 152.46	
1000089.90	 112366.79	 152.43	
1000089.89	 112366.78	 152.37	
1000089.90	 112366.79	 152.31	
1000089.90	 112366.79	 152.25	
1000089.90	 112366.79	 152.19	
1000089.90	 112366.79	 152.13	
1000089.90	 112366.79	 152.07	
1000089.91	 112366.79	 152.01	
1000089.90	 112366.79	 151.95	
1000089.90	 112366.79	 151.90	
1000089.90	 112366.79	 151.84	
1000089.90	 112366.79	 151.78	
1000089.90	 112366.79	 151.72	
1000089.90	 112366.79	 151.66	
1000089.90	 112366.79	 151.60	
1000090.45	 112367.06	 151.43	
1000090.46	 112367.07	 151.37	
1000090.46	 112367.07	 151.32	
1000090.46	 112367.07	 151.26	
1000090.33	 112367.00	 151.22	
1000090.08	 112366.88	 151.21	
1000091.80	 112367.80	 161.12	
1000091.81	 112367.80	 161.05	
1000091.79	 112367.79	 161.00	
1000091.74	 112367.77	 160.96	
1000091.75	 112367.77	 160.89	
1000091.75	 112367.77	 160.83	
1000091.49	 112367.64	 160.88	
1000091.37	 112367.58	 160.86	
1000091.26	 112367.53	 160.84	
1000091.14	 112367.47	 160.82	
1000091.02	 112367.40	 160.81	
1000090.90	 112367.35	 160.79	
1000090.78	 112367.29	 160.78	
1000090.66	 112367.23	 160.76	
1000090.54	 112367.16	 160.75	
1000090.42	 112367.10	 160.73	
1000090.29	 112367.04	 160.71	
1000090.17	 112366.98	 160.70	
1000090.05	 112366.92	 160.68	
1000089.93	 112366.86	 160.66	
1000089.90	 112366.85	 160.61	
1000089.84	 112366.82	 160.57	
1000089.84	 112366.82	 160.51	
1000089.84	 112366.82	 160.44	
1000089.84	 112366.82	 160.38	
1000089.84	 112366.82	 160.32	
1000089.84	 112366.82	 160.25	
1000089.84	 112366.82	 160.19	
1000089.84	 112366.82	 160.13	
1000090.40	 112367.10	 159.86	
1000090.41	 112367.10	 159.79	
1000090.41	 112367.10	 159.73	
1000090.41	 112367.10	 159.67	
1000090.39	 112367.09	 159.61	
1000090.22	 112367.01	 159.61	
1000090.05	 112366.92	 159.61	
1000089.88	 112366.84	 159.61	
1000089.71	 112366.75	 159.61	
1000089.57	 112366.68	 159.59	
1000089.92	 112366.86	 156.69	
1000089.90	 112366.85	 156.63	
1000089.82	 112366.81	 156.60	
1000089.82	 112366.81	 156.54	
1000089.82	 112366.81	 156.48	
1000089.82	 112366.81	 156.41	
1000089.82	 112366.81	 156.35	
1000089.82	 112366.81	 156.29	
1000089.82	 112366.81	 156.23	
1000089.82	 112366.81	 156.17	
1000089.82	 112366.81	 156.11	
1000089.82	 112366.81	 156.05	
1000089.82	 112366.81	 155.99	
1000089.83	 112366.81	 155.93	
1000089.83	 112366.81	 155.86	
1000090.40	 112367.10	 155.64	
1000090.40	 112367.10	 155.58	
1000090.40	 112367.10	 155.52	
1000090.40	 112367.10	 155.46	
1000090.26	 112367.03	 155.44	
1000090.13	 112366.96	 155.42	
1000089.93	 112366.86	 155.41	
1000089.71	 112366.75	 155.41	
1000089.57	 112366.68	 155.39	
1000089.92	 112366.86	 152.44	
1000089.82	 112366.81	 152.40	
1000089.83	 112366.81	 152.34	
1000089.82	 112366.81	 152.28	
1000089.83	 112366.81	 152.22	
1000089.83	 112366.81	 152.16	
1000089.83	 112366.81	 152.10	
1000089.83	 112366.81	 152.04	
1000089.83	 112366.81	 151.98	
1000089.83	 112366.81	 151.93	
1000089.83	 112366.81	 151.87	
1000089.83	 112366.81	 151.81	
1000089.83	 112366.81	 151.75	
1000089.83	 112366.81	 151.69	
1000089.83	 112366.81	 151.63	
1000090.38	 112367.09	 151.46	
1000090.37	 112367.08	 151.41	
1000090.38	 112367.09	 151.35	
1000090.39	 112367.09	 151.28	
1000090.39	 112367.09	 151.23	
1000090.15	 112366.97	 151.22	
1000091.74	 112367.82	 161.08	
1000091.75	 112367.83	 161.01	
1000091.68	 112367.80	 160.97	
1000091.67	 112367.79	 160.91	
1000091.68	 112367.79	 160.85	
1000091.58	 112367.74	 160.83	
1000091.34	 112367.63	 160.87	
1000091.23	 112367.57	 160.85	
1000091.11	 112367.51	 160.83	
1000090.98	 112367.45	 160.82	
1000090.87	 112367.39	 160.80	
1000090.75	 112367.33	 160.78	
1000090.63	 112367.27	 160.77	
1000090.51	 112367.21	 160.75	
1000090.39	 112367.15	 160.74	
1000090.26	 112367.09	 160.72	
1000090.14	 112367.03	 160.70	
1000090.01	 112366.97	 160.69	
1000089.89	 112366.91	 160.67	
1000089.82	 112366.87	 160.63	
1000089.76	 112366.84	 160.59	
1000089.76	 112366.84	 160.53	
1000089.76	 112366.84	 160.47	
1000089.76	 112366.84	 160.40	
1000089.77	 112366.84	 160.34	
1000089.77	 112366.84	 160.28	
1000089.77	 112366.85	 160.21	
1000089.77	 112366.85	 160.15	
1000089.77	 112366.85	 160.08	
1000090.33	 112367.12	 159.82	
1000090.33	 112367.12	 159.75	
1000090.33	 112367.13	 159.69	
1000090.33	 112367.13	 159.63	
1000090.19	 112367.06	 159.62	
1000090.04	 112366.98	 159.61	
1000089.86	 112366.89	 159.61	
1000089.69	 112366.81	 159.61	
1000089.51	 112366.72	 159.61	
1000089.84	 112366.88	 156.65	
1000089.74	 112366.83	 156.62	
1000089.74	 112366.83	 156.55	
1000089.74	 112366.83	 156.49	
1000089.74	 112366.83	 156.43	
1000089.75	 112366.84	 156.37	
1000089.75	 112366.84	 156.31	
1000089.75	 112366.84	 156.25	
1000089.75	 112366.84	 156.19	
1000089.75	 112366.84	 156.13	
1000089.74	 112366.83	 156.07	
1000089.75	 112366.84	 156.01	
1000089.75	 112366.84	 155.94	
1000089.75	 112366.84	 155.88	
1000090.33	 112367.13	 155.66	
1000090.32	 112367.12	 155.60	
1000090.32	 112367.12	 155.54	
1000090.32	 112367.12	 155.48	
1000090.31	 112367.11	 155.42	
1000090.11	 112367.01	 155.42	
1000089.90	 112366.91	 155.42	
1000089.70	 112366.81	 155.41	
1000089.49	 112366.71	 155.41	
1000089.49	 112366.71	 155.35	
1000089.84	 112366.88	 152.45	
1000089.74	 112366.84	 152.41	
1000089.75	 112366.84	 152.35	
1000089.75	 112366.84	 152.29	
1000089.75	 112366.84	 152.23	
1000089.75	 112366.84	 152.17	
1000089.75	 112366.84	 152.12	
1000089.75	 112366.84	 152.06	
1000089.75	 112366.84	 152.00	
1000089.75	 112366.84	 151.94	
1000089.75	 112366.84	 151.88	
1000089.75	 112366.84	 151.82	
1000089.75	 112366.84	 151.76	
1000089.75	 112366.84	 151.70	
1000089.75	 112366.84	 151.64	
1000089.75	 112366.84	 151.59	
1000090.31	 112367.12	 151.42	
1000090.31	 112367.12	 151.36	
1000090.31	 112367.12	 151.30	
1000090.32	 112367.12	 151.24	
1000090.12	 112367.02	 151.22	
1000091.66	 112367.85	 161.10	
1000091.67	 112367.85	 161.03	
1000091.61	 112367.82	 161.00	
1000091.60	 112367.82	 160.93	
1000091.60	 112367.82	 160.88	
1000091.58	 112367.81	 160.82	
1000091.30	 112367.67	 160.87	
1000091.19	 112367.61	 160.85	
1000091.07	 112367.56	 160.84	
1000090.94	 112367.49	 160.82	
1000090.83	 112367.44	 160.81	
1000090.71	 112367.38	 160.79	
1000090.59	 112367.32	 160.77	
1000090.47	 112367.26	 160.76	
1000090.34	 112367.20	 160.74	
1000090.22	 112367.13	 160.72	
1000090.10	 112367.07	 160.71	
1000089.98	 112367.01	 160.69	
1000089.85	 112366.95	 160.68	
1000089.74	 112366.90	 160.65	
1000089.70	 112366.88	 160.61	
1000089.69	 112366.87	 160.55	
1000089.69	 112366.87	 160.48	
1000089.69	 112366.87	 160.42	
1000089.69	 112366.87	 160.36	
1000089.69	 112366.87	 160.29	
1000089.69	 112366.87	 160.23	
1000089.69	 112366.87	 160.16	
1000089.69	 112366.87	 160.10	
1000090.25	 112367.15	 159.83	
1000090.25	 112367.15	 159.77	
1000090.26	 112367.15	 159.71	
1000090.25	 112367.15	 159.65	
1000090.12	 112367.08	 159.63	
1000090.00	 112367.03	 159.61	
1000089.83	 112366.94	 159.61	
1000089.66	 112366.86	 159.61	
1000089.49	 112366.77	 159.61	
1000089.41	 112366.73	 159.57	
1000089.76	 112366.91	 156.66	
1000089.67	 112366.86	 156.63	
1000089.66	 112366.86	 156.57	
1000089.66	 112366.86	 156.51	
1000089.67	 112366.86	 156.45	
1000089.67	 112366.86	 156.39	
1000089.67	 112366.86	 156.32	
1000089.67	 112366.86	 156.26	
1000089.67	 112366.86	 156.20	
1000089.67	 112366.86	 156.14	
1000089.67	 112366.86	 156.08	
1000089.67	 112366.86	 156.02	
1000089.67	 112366.86	 155.96	
1000089.67	 112366.86	 155.90	
1000090.25	 112367.15	 155.67	
1000090.25	 112367.15	 155.61	
1000090.25	 112367.15	 155.55	
1000090.25	 112367.15	 155.49	
1000090.25	 112367.15	 155.43	
1000090.06	 112367.06	 155.42	
1000089.87	 112366.96	 155.42	
1000089.67	 112366.86	 155.41	
1000089.45	 112366.75	 155.41	
1000089.41	 112366.73	 155.36	
1000089.77	 112366.91	 152.46	
1000089.66	 112366.86	 152.42	
1000089.67	 112366.86	 152.36	
1000089.67	 112366.86	 152.30	
1000089.68	 112366.86	 152.24	
1000089.67	 112366.86	 152.18	
1000089.68	 112366.86	 152.13	
1000089.67	 112366.86	 152.07	
1000089.67	 112366.86	 152.01	
1000089.68	 112366.87	 151.95	
1000089.68	 112366.87	 151.89	
1000089.68	 112366.87	 151.83	
1000089.67	 112366.86	 151.77	
1000089.67	 112366.86	 151.71	
1000089.67	 112366.86	 151.65	
1000089.67	 112366.86	 151.59	
1000090.23	 112367.14	 151.43	
1000090.22	 112367.13	 151.37	
1000090.24	 112367.14	 151.31	
1000090.24	 112367.14	 151.25	
1000090.09	 112367.07	 151.22	
1000091.59	 112367.87	 161.08	
1000091.60	 112367.88	 161.01	
1000091.53	 112367.85	 160.98	
1000091.53	 112367.84	 160.92	
1000091.53	 112367.84	 160.85	
1000091.44	 112367.80	 160.83	
1000091.19	 112367.68	 160.86	
1000091.08	 112367.62	 160.85	
1000090.96	 112367.56	 160.83	
1000090.84	 112367.50	 160.82	
1000090.72	 112367.44	 160.80	
1000090.60	 112367.38	 160.78	
1000090.48	 112367.32	 160.77	
1000090.36	 112367.26	 160.75	
1000090.23	 112367.20	 160.74	
1000090.11	 112367.14	 160.72	
1000089.99	 112367.08	 160.70	
1000089.86	 112367.02	 160.69	
1000089.74	 112366.96	 160.67	
1000089.67	 112366.92	 160.63	
1000089.61	 112366.89	 160.59	
1000089.61	 112366.89	 160.53	
1000089.61	 112366.89	 160.47	
1000089.61	 112366.89	 160.40	
1000089.61	 112366.89	 160.34	
1000089.61	 112366.89	 160.27	
1000089.62	 112366.90	 160.21	
1000089.61	 112366.89	 160.15	
1000089.62	 112366.90	 160.08	
1000090.18	 112367.17	 159.82	
1000090.18	 112367.17	 159.75	
1000090.18	 112367.17	 159.69	
1000090.18	 112367.18	 159.63	
1000090.04	 112367.11	 159.61	
1000089.88	 112367.02	 159.61	
1000089.71	 112366.94	 159.61	
1000089.53	 112366.85	 159.61	
1000089.35	 112366.77	 159.61	
1000089.69	 112366.94	 156.64	
1000089.59	 112366.88	 156.61	
1000089.59	 112366.88	 156.55	
1000089.59	 112366.88	 156.49	
1000089.59	 112366.88	 156.43	
1000089.59	 112366.89	 156.36	
1000089.59	 112366.89	 156.30	
1000089.59	 112366.89	 156.24	
1000089.59	 112366.89	 156.18	
1000089.59	 112366.89	 156.12	
1000089.59	 112366.89	 156.06	
1000089.59	 112366.89	 156.00	
1000089.59	 112366.89	 155.94	
1000089.60	 112366.89	 155.88	
1000090.18	 112367.18	 155.65	
1000090.18	 112367.18	 155.59	
1000090.18	 112367.18	 155.53	
1000090.18	 112367.18	 155.47	
1000090.11	 112367.14	 155.43	
1000089.92	 112367.05	 155.42	
1000089.72	 112366.95	 155.41	
1000089.51	 112366.84	 155.41	
1000089.34	 112366.76	 155.40	
1000089.33	 112366.76	 155.34	
1000089.69	 112366.94	 152.44	
1000089.59	 112366.89	 152.40	
1000089.60	 112366.89	 152.34	
1000089.60	 112366.89	 152.28	
1000089.60	 112366.89	 152.22	
1000089.60	 112366.89	 152.16	
1000089.60	 112366.89	 152.10	
1000089.60	 112366.89	 152.04	
1000089.60	 112366.89	 151.98	
1000089.60	 112366.89	 151.92	
1000089.60	 112366.89	 151.86	
1000089.60	 112366.89	 151.81	
1000089.60	 112366.89	 151.75	
1000089.59	 112366.89	 151.69	
1000089.60	 112366.89	 151.63	
1000090.15	 112367.16	 151.46	
1000090.16	 112367.17	 151.40	
1000090.15	 112367.16	 151.34	
1000090.16	 112367.17	 151.28	
1000090.16	 112367.17	 151.22	
1000089.90	 112367.04	 151.22	
1000091.51	 112367.90	 161.08	
1000091.52	 112367.90	 161.01	
1000091.46	 112367.87	 160.97	
1000091.45	 112367.87	 160.91	
1000091.45	 112367.87	 160.85	
1000091.36	 112367.82	 160.83	
1000091.11	 112367.70	 160.86	
1000091.01	 112367.65	 160.84	
1000090.88	 112367.59	 160.83	
1000090.76	 112367.52	 160.81	
1000090.64	 112367.47	 160.80	
1000090.52	 112367.41	 160.78	
1000090.40	 112367.35	 160.77	
1000090.27	 112367.28	 160.75	
1000090.15	 112367.22	 160.74	
1000090.02	 112367.16	 160.72	
1000089.90	 112367.10	 160.70	
1000089.78	 112367.04	 160.69	
1000089.66	 112366.98	 160.67	
1000089.59	 112366.95	 160.63	
1000089.53	 112366.92	 160.59	
1000089.53	 112366.92	 160.53	
1000089.53	 112366.92	 160.46	
1000089.54	 112366.92	 160.40	
1000089.54	 112366.92	 160.33	
1000089.54	 112366.92	 160.27	
1000089.54	 112366.92	 160.21	
1000089.54	 112366.92	 160.14	
1000089.53	 112366.92	 160.08	
1000090.10	 112367.20	 159.81	
1000090.10	 112367.20	 159.75	
1000090.10	 112367.20	 159.69	
1000090.10	 112367.20	 159.62	
1000089.96	 112367.13	 159.61	
1000089.78	 112367.04	 159.61	
1000089.62	 112366.96	 159.61	
1000089.44	 112366.87	 159.61	
1000089.26	 112366.79	 159.61	
1000089.61	 112366.96	 156.63	
1000089.51	 112366.91	 156.60	
1000089.51	 112366.91	 156.54	
1000089.51	 112366.91	 156.48	
1000089.51	 112366.91	 156.42	
1000089.51	 112366.91	 156.36	
1000089.51	 112366.91	 156.30	
1000089.52	 112366.91	 156.23	
1000089.51	 112366.91	 156.17	
1000089.51	 112366.91	 156.11	
1000089.51	 112366.91	 156.05	
1000089.51	 112366.91	 155.99	
1000089.52	 112366.91	 155.93	
1000089.52	 112366.91	 155.87	
1000090.10	 112367.20	 155.64	
1000090.10	 112367.20	 155.58	
1000090.10	 112367.20	 155.52	
1000090.10	 112367.20	 155.46	
1000089.96	 112367.13	 155.44	
1000089.83	 112367.07	 155.42	
1000089.62	 112366.96	 155.42	
1000089.40	 112366.86	 155.41	
1000089.26	 112366.79	 155.39	
1000089.61	 112366.96	 152.49	
1000089.56	 112366.94	 152.44	
1000089.51	 112366.91	 152.39	
1000089.52	 112366.91	 152.33	
1000089.52	 112366.92	 152.27	
1000089.52	 112366.91	 152.21	
1000089.52	 112366.92	 152.15	
1000089.52	 112366.92	 152.09	
1000089.52	 112366.91	 152.03	
1000089.52	 112366.92	 151.97	
1000089.52	 112366.92	 151.91	
1000089.52	 112366.92	 151.85	
1000089.52	 112366.92	 151.79	
1000089.52	 112366.92	 151.74	
1000089.52	 112366.92	 151.68	
1000089.52	 112366.91	 151.62	
1000090.08	 112367.19	 151.45	
1000090.07	 112367.19	 151.39	
1000090.08	 112367.19	 151.33	
1000090.09	 112367.20	 151.27	
1000090.02	 112367.16	 151.22	
1000089.77	 112367.04	 151.22	
1000091.44	 112367.92	 161.08	
1000091.45	 112367.92	 161.02	
1000091.38	 112367.89	 160.98	
1000091.38	 112367.89	 160.92	
1000091.38	 112367.89	 160.86	
1000091.29	 112367.85	 160.83	
1000091.05	 112367.73	 160.86	
1000090.94	 112367.67	 160.85	
1000090.81	 112367.61	 160.83	
1000090.69	 112367.55	 160.82	
1000090.57	 112367.49	 160.80	
1000090.45	 112367.43	 160.78	
1000090.33	 112367.38	 160.77	
1000090.21	 112367.31	 160.75	
1000090.08	 112367.25	 160.74	
1000089.96	 112367.19	 160.72	
1000089.84	 112367.13	 160.70	
1000089.71	 112367.07	 160.69	
1000089.59	 112367.01	 160.67	
1000089.52	 112366.97	 160.63	
1000089.45	 112366.94	 160.59	
1000089.46	 112366.94	 160.53	
1000089.45	 112366.94	 160.47	
1000089.45	 112366.94	 160.40	
1000089.46	 112366.94	 160.34	
1000089.46	 112366.95	 160.27	
1000089.46	 112366.95	 160.21	
1000089.46	 112366.95	 160.14	
1000089.46	 112366.95	 160.08	
1000090.03	 112367.23	 159.81	
1000090.03	 112367.22	 159.75	
1000090.03	 112367.23	 159.69	
1000090.03	 112367.23	 159.62	
1000089.89	 112367.16	 159.61	
1000089.72	 112367.07	 159.61	
1000089.55	 112366.99	 159.61	
1000089.37	 112366.90	 159.61	
1000089.19	 112366.82	 159.61	
1000089.53	 112366.99	 156.63	
1000089.43	 112366.93	 156.60	
1000089.43	 112366.93	 156.54	
1000089.43	 112366.93	 156.48	
1000089.43	 112366.94	 156.42	
1000089.44	 112366.94	 156.36	
1000089.44	 112366.94	 156.30	
1000089.44	 112366.94	 156.24	
1000089.44	 112366.94	 156.18	
1000089.44	 112366.94	 156.11	
1000089.44	 112366.94	 156.05	
1000089.44	 112366.94	 155.99	
1000089.44	 112366.94	 155.93	
1000089.44	 112366.94	 155.87	
1000090.02	 112367.23	 155.64	
1000090.02	 112367.23	 155.58	
1000090.02	 112367.22	 155.52	
1000090.02	 112367.23	 155.46	
1000089.88	 112367.16	 155.44	
1000089.74	 112367.09	 155.42	
1000089.54	 112366.99	 155.41	
1000089.33	 112366.88	 155.41	
1000089.18	 112366.81	 155.39	
1000089.53	 112366.99	 152.48	
1000089.45	 112366.95	 152.44	
1000089.44	 112366.94	 152.38	
1000089.44	 112366.94	 152.32	
1000089.44	 112366.94	 152.26	
1000089.44	 112366.94	 152.21	
1000089.44	 112366.94	 152.15	
1000089.45	 112366.94	 152.09	
1000089.44	 112366.94	 152.03	
1000089.45	 112366.94	 151.97	
1000089.44	 112366.94	 151.91	
1000089.44	 112366.94	 151.85	
1000089.44	 112366.94	 151.79	
1000089.44	 112366.94	 151.73	
1000089.44	 112366.94	 151.67	
1000089.44	 112366.94	 151.62	
1000090.00	 112367.22	 151.45	
1000090.00	 112367.22	 151.38	
1000090.01	 112367.22	 151.32	
1000090.01	 112367.22	 151.27	
1000089.88	 112367.16	 151.23	
1000089.68	 112367.06	 151.22	
1000091.36	 112367.95	 161.12	
1000091.36	 112367.95	 161.06	
1000091.36	 112367.95	 161.00	
1000091.30	 112367.92	 160.96	
1000091.30	 112367.92	 160.90	
1000091.30	 112367.92	 160.83	
1000091.04	 112367.79	 160.87	
1000090.93	 112367.74	 160.85	
1000090.81	 112367.68	 160.84	
1000090.68	 112367.62	 160.83	
1000090.56	 112367.55	 160.81	
1000090.45	 112367.50	 160.79	
1000090.33	 112367.44	 160.78	
1000090.20	 112367.38	 160.76	
1000090.07	 112367.31	 160.75	
1000089.95	 112367.26	 160.73	
1000089.83	 112367.19	 160.72	
1000089.70	 112367.13	 160.70	
1000089.58	 112367.07	 160.68	
1000089.45	 112367.01	 160.66	
1000089.43	 112367.00	 160.61	
1000089.37	 112366.97	 160.57	
1000089.38	 112366.97	 160.50	
1000089.37	 112366.97	 160.44	
1000089.38	 112366.97	 160.37	
1000089.38	 112366.97	 160.31	
1000089.38	 112366.97	 160.25	
1000089.38	 112366.98	 160.18	
1000089.38	 112366.98	 160.12	
1000089.94	 112367.25	 159.85	
1000089.95	 112367.25	 159.79	
1000089.94	 112367.25	 159.72	
1000089.94	 112367.25	 159.66	
1000089.91	 112367.24	 159.61	
1000089.74	 112367.15	 159.61	
1000089.56	 112367.07	 159.61	
1000089.39	 112366.98	 159.61	
1000089.21	 112366.89	 159.61	
1000089.11	 112366.84	 159.58	
1000089.45	 112367.01	 156.66	
1000089.36	 112366.97	 156.63	
1000089.35	 112366.96	 156.57	
1000089.35	 112366.96	 156.51	
1000089.35	 112366.96	 156.45	
1000089.35	 112366.96	 156.39	
1000089.36	 112366.96	 156.33	
1000089.36	 112366.96	 156.27	
1000089.36	 112366.96	 156.20	
1000089.36	 112366.96	 156.14	
1000089.36	 112366.96	 156.08	
1000089.36	 112366.96	 156.02	
1000089.36	 112366.96	 155.96	
1000089.36	 112366.97	 155.90	
1000089.94	 112367.25	 155.61	
1000089.92	 112367.24	 155.56	
1000089.93	 112367.24	 155.50	
1000089.94	 112367.25	 155.43	
1000089.76	 112367.16	 155.42	
1000089.56	 112367.06	 155.42	
1000089.35	 112366.96	 155.41	
1000089.14	 112366.86	 155.41	
1000089.10	 112366.84	 155.36	
1000089.46	 112367.01	 152.45	
1000089.36	 112366.96	 152.41	
1000089.36	 112366.97	 152.35	
1000089.37	 112366.97	 152.29	
1000089.37	 112366.97	 152.23	
1000089.36	 112366.97	 152.17	
1000089.36	 112366.97	 152.11	
1000089.36	 112366.97	 152.05	
1000089.36	 112366.97	 152.00	
1000089.37	 112366.97	 151.94	
1000089.37	 112366.97	 151.87	
1000089.36	 112366.97	 151.82	
1000089.36	 112366.97	 151.76	
1000089.36	 112366.97	 151.70	
1000089.37	 112366.97	 151.64	
1000089.36	 112366.97	 151.58	
1000089.92	 112367.24	 151.41	
1000089.93	 112367.24	 151.35	
1000089.93	 112367.24	 151.29	
1000089.93	 112367.25	 151.24	
1000089.72	 112367.14	 151.22	
1000091.29	 112367.97	 161.08	
1000091.30	 112367.97	 161.02	
1000091.24	 112367.95	 160.98	
1000091.23	 112367.94	 160.92	
1000091.23	 112367.94	 160.86	
1000091.15	 112367.90	 160.83	
1000090.90	 112367.78	 160.86	
1000090.78	 112367.72	 160.84	
1000090.66	 112367.66	 160.83	
1000090.53	 112367.60	 160.82	
1000090.42	 112367.54	 160.80	
1000090.30	 112367.49	 160.78	
1000090.18	 112367.43	 160.77	
1000090.05	 112367.36	 160.75	
1000089.93	 112367.30	 160.74	
1000089.80	 112367.24	 160.72	
1000089.68	 112367.18	 160.71	
1000089.56	 112367.12	 160.69	
1000089.43	 112367.06	 160.67	
1000089.36	 112367.02	 160.63	
1000089.30	 112366.99	 160.59	
1000089.30	 112367.00	 160.53	
1000089.30	 112367.00	 160.47	
1000089.30	 112367.00	 160.40	
1000089.30	 112367.00	 160.34	
1000089.31	 112367.00	 160.27	
1000089.30	 112367.00	 160.21	
1000089.31	 112367.00	 160.14	
1000089.30	 112367.00	 160.08	
1000089.87	 112367.28	 159.81	
1000089.87	 112367.28	 159.75	
1000089.87	 112367.28	 159.69	
1000089.87	 112367.28	 159.62	
1000089.73	 112367.21	 159.61	
1000089.56	 112367.13	 159.61	
1000089.38	 112367.04	 159.61	
1000089.21	 112366.95	 159.61	
1000089.03	 112366.87	 159.61	
1000089.37	 112367.03	 156.69	
1000089.35	 112367.02	 156.63	
1000089.27	 112366.99	 156.60	
1000089.27	 112366.99	 156.53	
1000089.28	 112366.99	 156.47	
1000089.28	 112366.99	 156.41	
1000089.28	 112366.99	 156.35	
1000089.28	 112366.99	 156.29	
1000089.28	 112366.99	 156.23	
1000089.28	 112366.99	 156.16	
1000089.28	 112366.99	 156.10	
1000089.28	 112366.99	 156.04	
1000089.28	 112366.99	 155.98	
1000089.29	 112366.99	 155.92	
1000089.28	 112366.99	 155.86	
1000089.87	 112367.28	 155.63	
1000089.87	 112367.28	 155.57	
1000089.87	 112367.27	 155.51	
1000089.87	 112367.28	 155.45	
1000089.73	 112367.21	 155.43	
1000089.56	 112367.12	 155.42	
1000089.35	 112367.02	 155.41	
1000089.14	 112366.92	 155.41	
1000089.03	 112366.86	 155.38	
1000089.38	 112367.04	 152.47	
1000089.29	 112366.99	 152.43	
1000089.29	 112366.99	 152.37	
1000089.29	 112366.99	 152.31	
1000089.29	 112367.00	 152.25	
1000089.29	 112366.99	 152.19	
1000089.29	 112366.99	 152.13	
1000089.29	 112366.99	 152.07	
1000089.29	 112366.99	 152.01	
1000089.29	 112366.99	 151.95	
1000089.29	 112366.99	 151.89	
1000089.29	 112366.99	 151.83	
1000089.28	 112366.99	 151.78	
1000089.28	 112366.99	 151.72	
1000089.28	 112366.99	 151.66	
1000089.28	 112366.99	 151.60	
1000089.82	 112367.26	 151.43	
